ply
format ascii 1.0
comment Exported by Geomagic
element vertex 1242
property float x
property float y
property float z
property uchar red
property uchar green
property uchar blue
end_header
-0.069972 0.024402 0.001258 126 141 145
0.070087 0.010481 0.001258 91 94 85
-0.081412 -0.000896 0.001259 118 126 127
-0.079212 0.012031 0.001259 111 115 109
0.069961 0.006485 0.001259 120 131 123
-0.081000 0.018955 0.001259 165 175 174
-0.059016 -0.004249 0.001260 117 129 130
-0.083955 0.015558 0.001260 165 175 175
-0.066096 -0.001743 0.004587 133 146 148
-0.036470 0.004940 0.004587 135 144 142
-0.084235 0.015177 0.001260 167 177 179
-0.057883 -0.004189 0.001260 114 127 126
-0.040753 0.006483 0.001260 5 21 23
-0.060246 0.003110 0.001260 135 147 142
-0.047333 -0.003003 0.001261 111 117 121
-0.045429 0.003694 0.001261 115 128 129
0.069888 0.005151 0.001261 125 130 126
-0.057722 0.025779 0.001261 123 138 142
-0.025238 0.000599 0.001261 70 80 76
0.073094 0.011264 0.001261 25 30 18
-0.067231 0.025040 0.001261 134 150 149
-0.065642 0.020084 0.001261 94 103 98
0.058077 0.000931 0.001261 11 10 10
-0.087938 -0.000059 0.001262 79 76 86
0.069929 0.007452 0.001262 126 127 119
-0.066935 0.019774 0.001262 98 106 99
0.070575 0.004984 0.001262 116 120 113
-0.022792 0.008289 0.001262 4 7 9
-0.072537 -0.006951 0.001262 120 136 142
0.071103 0.005266 0.001262 106 111 102
-0.057588 0.003581 0.001262 133 145 142
-0.081117 -0.001179 0.001263 115 128 126
-0.047067 0.016837 0.001263 62 59 61
0.063037 0.002255 0.001263 18 6 16
-0.080370 -0.001345 0.001263 118 131 130
0.069638 0.008397 0.001263 124 125 120
-0.081361 0.018673 0.001263 169 176 174
-0.074339 -0.007413 0.001263 121 128 128
-0.039185 0.017883 0.001263 51 59 52
0.070611 0.010703 0.001264 81 76 51
-0.045999 0.003675 0.001264 120 132 131
-0.042000 0.004075 0.001264 64 70 76
-0.035320 -0.002545 0.001265 85 96 92
-0.057928 0.025792 0.001265 124 136 140
-0.073607 0.023315 0.001265 127 140 146
-0.054631 -0.003738 0.001265 112 117 120
0.070205 0.007012 0.001265 127 132 120
-0.073624 -0.000410 0.001265 129 142 140
-0.051836 0.019568 0.001265 89 96 77
-0.080886 0.008822 0.001266 114 122 119
-0.034537 0.004041 0.004587 140 149 147
-0.074813 0.022797 0.001266 137 138 147
0.078718 0.004941 0.001266 72 63 47
-0.034685 -0.002529 0.001268 69 99 102
-0.060999 0.020614 0.001268 96 101 82
-0.064986 0.020216 0.001268 95 105 98
-0.021836 0.005048 0.001268 106 117 111
0.073911 0.005324 0.001269 68 68 51
0.073725 0.011231 0.001269 43 24 7
0.073426 0.011228 0.001269 34 26 7
-0.062465 -0.004688 0.001269 117 131 130
0.069913 0.007984 0.001269 124 126 124
-0.069416 0.019237 0.001269 106 111 105
-0.021548 0.005393 0.001269 104 116 109
-0.081820 0.003321 0.001269 107 111 116
-0.087979 0.005210 0.001269 59 69 68
-0.052790 0.019833 0.001270 75 89 81
0.061106 0.002532 0.001270 108 108 109
0.070687 0.005099 0.001270 118 122 118
-0.022001 0.004815 0.001270 106 115 109
-0.064281 0.025509 0.001271 137 150 153
-0.072946 -0.000193 0.001271 137 148 148
-0.081033 0.008339 0.001271 115 121 119
-0.066399 0.025168 0.001271 137 143 145
0.070342 0.006619 0.001271 121 132 125
-0.037925 0.001383 0.004587 146 150 145
-0.028616 0.009864 0.001271 39 54 46
-0.079167 -0.001419 0.001271 127 144 144
-0.064500 0.002270 0.001272 138 144 146
0.069876 0.004317 0.001272 111 112 96
-0.075348 0.016070 0.001272 98 105 97
-0.057232 -0.004118 0.001272 117 124 128
-0.046839 0.016647 0.001272 55 51 50
0.071760 0.011086 0.001272 53 52 36
0.059957 0.001765 0.001272 12 25 27
-0.068522 -0.004063 0.004586 138 153 154
-0.055387 0.025572 0.001272 124 132 129
0.077867 0.011996 0.001273 56 53 45
0.058126 0.001965 0.001273 99 101 91
0.094175 0.010586 0.001273 50 52 49
-0.036207 0.005282 0.004586 134 146 140
-0.087720 0.006493 0.001273 82 73 67
-0.045129 -0.002897 0.001274 108 115 121
0.061246 0.002565 0.001274 120 123 122
0.064814 0.001924 0.001274 10 2 1
0.059190 0.002231 0.001274 119 122 117
0.070430 0.005111 0.001274 122 127 124
0.062313 0.002924 0.001275 121 123 117
0.080215 0.005839 0.001275 69 65 47
-0.042510 0.011748 0.001275 8 8 7
-0.075002 -0.005639 0.004585 147 158 156
-0.045199 0.003704 0.001275 122 130 132
-0.078492 0.013054 0.001275 110 120 114
-0.039262 -0.002501 0.001276 93 104 109
-0.057875 0.003526 0.001276 134 145 143
-0.044325 0.022066 0.001276 74 94 93
0.073350 0.005605 0.001276 75 76 66
-0.081523 0.006415 0.001277 114 120 119
0.082084 0.006225 0.001277 64 61 32
-0.049225 0.003742 0.001277 120 127 132
0.075336 0.005371 0.001277 78 70 57
-0.043557 0.013311 0.001277 18 16 10
0.075791 0.011669 0.001277 54 49 29
0.060935 0.002482 0.001277 77 77 76
-0.056366 -0.003954 0.001277 112 123 124
-0.063148 0.020546 0.001277 92 103 92
0.070134 0.005526 0.001278 123 130 125
-0.048825 -0.003098 0.001278 111 115 116
-0.081627 0.001178 0.001278 112 121 123
0.066051 0.004268 0.001278 119 122 118
0.070282 0.006070 0.001278 120 131 127
0.070197 0.005183 0.001278 124 129 125
-0.053508 0.020125 0.001278 93 93 78
-0.063394 -0.003223 0.004585 136 146 153
0.062888 0.002089 0.001279 18 7 17
-0.084934 0.014113 0.001280 176 189 183
0.073607 0.005509 0.001280 72 73 63
0.070613 0.006950 0.001280 125 129 118
0.069841 0.009781 0.001280 95 99 93
-0.046419 0.023319 0.001280 85 94 95
-0.083472 0.016171 0.001280 169 182 182
0.065043 0.001958 0.001280 11 9 0
-0.043431 0.013143 0.001280 15 14 8
-0.076021 -0.001045 0.001280 137 148 143
0.063063 0.003237 0.001281 114 128 118
-0.024549 0.008605 0.001281 11 29 29
0.069993 0.008772 0.001281 116 116 106
-0.040841 0.005489 0.001281 37 43 31
-0.041437 -0.000279 0.004584 153 161 163
-0.068217 0.001311 0.001281 137 146 144
0.063196 0.003282 0.001281 115 128 118
-0.026060 -0.000301 0.001282 94 102 103
-0.080078 -0.001379 0.001282 120 132 131
-0.052840 -0.003540 0.001282 101 112 118
-0.034823 0.002922 0.004584 135 149 147
0.084381 0.012432 0.001283 57 60 42
-0.045342 -0.002897 0.001283 110 116 121
-0.042946 -0.000631 0.004584 155 161 164
0.077647 0.005061 0.001283 68 61 46
-0.051328 -0.003365 0.001283 108 117 124
-0.027215 0.009309 0.001283 43 52 43
-0.055562 0.003706 0.001284 122 138 138
-0.075704 -0.000977 0.001284 137 148 142
-0.024998 0.000857 0.001284 69 74 73
0.069159 0.004709 0.001285 123 132 126
-0.071856 -0.004076 0.004584 134 145 145
-0.056740 -0.004021 0.001285 116 121 126
0.070671 0.007396 0.001286 123 130 120
0.058340 0.000933 0.001286 6 7 4
0.064563 0.001878 0.001286 0 1 1
-0.030947 -0.002272 0.001286 56 78 75
0.065259 0.003534 0.001286 116 124 120
-0.082926 0.016839 0.001286 172 186 178
-0.030611 0.010460 0.001286 46 57 54
-0.053300 -0.003585 0.001286 110 118 123
-0.056212 0.003664 0.001286 123 136 136
-0.030238 0.010344 0.001288 26 54 63
-0.064175 0.020376 0.001288 98 105 97
-0.047403 0.017106 0.001288 74 73 56
-0.051349 0.024966 0.001288 101 115 117
0.070497 0.007896 0.001288 120 129 123
-0.040722 0.007095 0.001289 15 30 20
-0.066246 -0.003620 0.004584 139 150 148
0.079442 0.004977 0.001289 66 62 47
-0.046267 0.016138 0.001289 41 38 33
0.092548 0.012155 0.001289 70 63 55
-0.085172 -0.005933 0.001290 119 129 138
0.070400 0.005358 0.001290 122 130 125
-0.088115 0.003872 0.001290 51 70 61
-0.071746 -0.006749 0.001290 122 133 141
0.070338 0.008380 0.001290 121 126 115
-0.040729 0.007345 0.001290 12 35 19
0.070707 0.005323 0.001290 121 126 122
-0.024719 0.001165 0.001291 70 77 75
-0.081690 0.005654 0.001291 105 117 117
-0.080383 0.019376 0.001291 159 169 171
-0.021238 0.005710 0.001291 99 113 114
-0.032661 0.011691 0.001292 38 47 43
0.076846 0.005063 0.001292 64 60 32
-0.055087 0.025538 0.001292 119 130 131
-0.040779 0.006109 0.001292 9 34 26
-0.081560 -0.000201 0.001292 116 126 125
-0.037932 0.016478 0.001292 52 54 53
-0.044837 0.022449 0.001292 72 89 91
-0.043179 0.021299 0.001292 86 88 86
0.070401 0.005521 0.001293 122 130 125
-0.073884 0.017348 0.001293 109 120 114
-0.057968 0.020597 0.001293 93 98 87
-0.054146 0.020286 0.001293 105 96 76
-0.058208 0.025799 0.001293 127 135 139
-0.052765 0.025269 0.001294 110 119 118
0.070155 0.009295 0.001294 99 106 95
-0.032416 0.011492 0.001294 40 47 43
0.079374 0.004895 0.001294 66 62 47
-0.049713 -0.001455 0.004584 134 151 152
-0.031772 0.011022 0.001294 51 53 55
-0.050074 -0.003225 0.001295 115 121 128
-0.047106 -0.002982 0.001295 111 118 121
0.070476 0.005703 0.001295 120 131 125
0.062406 0.001829 0.001295 2 3 8
0.077416 0.011953 0.001295 56 52 43
0.082599 0.012324 0.001295 65 60 42
-0.073113 -0.004970 0.004584 145 157 160
-0.048720 0.024147 0.001295 104 111 109
-0.049280 0.024363 0.001295 99 111 110
-0.050106 0.024622 0.001295 101 113 112
-0.041554 0.019977 0.001296 65 76 72
0.072874 0.011150 0.001296 28 45 29
0.070888 0.006495 0.001297 126 129 123
0.080376 0.006013 0.001297 71 67 46
0.071017 0.006992 0.001297 121 130 124
-0.087755 0.006264 0.001298 78 79 77
-0.044129 0.003731 0.001298 116 129 128
0.070387 0.008817 0.001298 111 117 104
-0.086170 -0.004656 0.001298 119 130 143
0.077415 0.005087 0.001298 66 62 50
-0.070762 0.018873 0.001298 106 114 109
-0.083625 -0.007400 0.001298 120 134 137
0.064005 0.001974 0.001299 0 4 4
0.069346 0.003996 0.001299 95 91 88
0.070570 0.005534 0.001299 122 128 122
-0.035020 0.004930 0.004583 143 147 143
-0.085837 0.012402 0.001299 157 169 168
-0.066100 0.001902 0.001299 145 156 153
-0.029174 0.009983 0.001299 47 50 43
0.070700 0.005984 0.001299 124 129 125
-0.041126 -0.002534 0.001300 104 112 114
0.092182 0.012286 0.001300 70 62 53
-0.072548 -0.000076 0.001300 139 147 145
-0.047685 0.023765 0.001300 93 99 99
-0.071639 -0.004561 0.004583 139 150 143
-0.056156 -0.003917 0.001300 110 118 123
-0.077182 0.021608 0.001301 142 155 157
0.057718 0.001061 0.001301 55 50 39
-0.045347 0.000577 0.004583 134 145 146
-0.052226 0.003785 0.001301 129 137 136
-0.042161 -0.002619 0.001301 98 110 110
0.064835 0.003374 0.001301 119 124 121
0.071344 0.005674 0.001301 114 121 109
-0.083867 -0.007183 0.001302 121 130 132
0.063165 0.002097 0.001302 19 6 9
-0.052497 0.025228 0.001302 109 120 117
-0.078233 -0.001416 0.001303 136 144 145
-0.044057 -0.000966 0.004583 155 162 160
0.070463 0.010179 0.001303 96 99 91
0.093103 0.008287 0.001304 16 13 14
-0.053427 0.025352 0.001304 112 125 123
-0.038483 -0.002454 0.001304 87 101 109
-0.064704 0.002220 0.001304 139 147 149
-0.045714 0.015615 0.001305 38 43 32
-0.067630 -0.003929 0.004582 140 152 153
0.070283 0.009754 0.001305 93 100 93
-0.044934 -0.002889 0.001305 106 116 121
-0.083400 -0.007589 0.001305 122 136 139
0.092558 0.007858 0.001305 15 14 16
-0.068152 0.019554 0.001306 100 110 108
-0.044712 -0.002881 0.001306 103 115 120
0.065468 0.002264 0.001306 21 9 1
-0.048448 0.003715 0.001306 119 130 129
0.071022 0.007806 0.001306 120 133 127
-0.074202 -0.005592 0.004582 153 157 158
0.070864 0.005676 0.001307 122 125 119
-0.026897 0.009191 0.001307 49 49 49
0.071020 0.010579 0.001307 87 98 86
-0.063126 0.025606 0.001307 125 143 143
0.074272 0.005287 0.001307 67 69 54
0.057544 0.001383 0.001307 62 57 43
0.069669 0.004070 0.001308 102 95 86
-0.053701 0.025382 0.001308 117 130 129
-0.047587 0.003698 0.001308 128 129 131
-0.076983 -0.001251 0.001308 144 142 144
0.071260 0.007398 0.001309 117 133 129
0.072636 0.011110 0.001309 40 57 41
-0.087534 0.007516 0.001309 102 111 109
-0.064323 -0.004983 0.001309 119 129 130
-0.064790 0.020265 0.001309 96 104 97
-0.027095 -0.001569 0.001309 95 108 106
-0.048095 0.003707 0.001309 123 130 131
0.070597 0.009055 0.001309 106 110 102
0.074116 0.005354 0.001309 69 69 52
-0.059121 0.025798 0.001309 126 139 139
-0.039369 0.018070 0.001310 52 60 54
-0.061273 -0.004525 0.001310 120 133 134
-0.065844 -0.005335 0.001310 102 121 123
-0.032881 0.011860 0.001310 39 56 55
-0.058679 -0.004218 0.001310 113 127 126
-0.081377 0.007049 0.001311 111 122 122
-0.080195 0.019506 0.001311 158 167 167
-0.047895 0.017436 0.001311 72 85 77
-0.066734 -0.005532 0.001311 105 113 123
-0.041056 -0.000238 0.004582 152 163 163
-0.088108 0.002583 0.001312 62 68 70
0.070790 0.008768 0.001312 111 120 109
0.073682 0.005726 0.001312 76 78 69
0.079617 0.005171 0.001313 65 60 48
-0.071954 -0.006802 0.001313 124 132 141
-0.038010 -0.002435 0.001313 87 98 99
-0.036872 0.004135 0.004582 140 149 150
-0.074455 0.016862 0.001313 107 108 104
0.066011 0.002766 0.001313 1 8 11
-0.075014 0.016344 0.001314 104 110 92
0.073768 0.011002 0.001314 65 55 54
-0.051307 -0.001581 0.004582 147 155 157
-0.080674 0.009427 0.001314 116 124 121
0.069472 0.004354 0.001315 120 125 118
-0.038368 0.001560 0.004582 145 151 148
-0.051073 0.024887 0.001315 102 114 116
0.071189 0.006084 0.001315 124 127 123
0.071516 0.010767 0.001315 70 81 60
-0.059826 0.020634 0.001316 93 98 83
0.075512 0.005521 0.001316 83 70 57
0.073292 0.010988 0.001316 72 57 40
-0.073272 -0.000320 0.001316 139 146 143
-0.075112 0.022655 0.001317 136 141 145
0.076491 0.005282 0.001317 68 62 35
-0.051082 0.003797 0.001317 124 135 134
0.074617 0.005324 0.001317 67 70 61
0.080019 0.005749 0.001317 68 64 49
0.073576 0.010983 0.001317 63 48 34
-0.040114 0.000912 0.004581 144 154 150
-0.069644 -0.004154 0.004581 130 146 147
0.073065 0.005891 0.001318 90 90 82
-0.045465 0.022877 0.001318 80 88 85
-0.071528 0.000269 0.001318 138 151 148
-0.035750 0.005470 0.004581 131 142 142
0.071532 0.006974 0.001319 123 127 128
-0.068912 0.019396 0.001319 105 111 109
0.071142 0.008342 0.001319 120 128 121
-0.067988 -0.003991 0.004581 149 155 153
-0.077495 0.014242 0.001319 99 105 107
-0.023470 0.008354 0.001319 11 11 2
-0.064589 -0.003351 0.004581 140 148 153
-0.074749 0.016582 0.001320 100 101 94
0.061244 0.001788 0.001320 3 18 7
0.064244 0.001847 0.001320 2 1 2
-0.029124 -0.002361 0.001320 51 62 66
0.059315 0.001236 0.001320 11 22 36
-0.068843 -0.002458 0.004580 140 146 148
0.063734 0.003357 0.001321 114 124 118
-0.041311 0.009491 0.001321 12 13 11
-0.041058 0.008816 0.001321 13 14 12
0.078329 0.005066 0.001321 73 59 42
-0.075612 0.015909 0.001322 101 104 98
0.072274 0.011016 0.001322 68 55 38
-0.046828 -0.001217 0.004580 141 154 161
-0.036623 0.002260 0.004580 150 151 150
0.081331 0.006204 0.001322 66 65 46
-0.072543 -0.004402 0.004580 145 151 156
-0.037007 0.002179 0.004579 149 152 150
-0.033073 0.012014 0.001322 41 57 53
-0.038942 0.017588 0.001322 52 61 52
-0.037049 0.003611 0.004579 140 151 151
-0.021019 0.005942 0.001323 94 111 111
0.066529 0.003126 0.001323 15 13 1
-0.071474 -0.006680 0.001323 118 133 137
-0.053008 0.003759 0.001323 132 143 140
-0.087278 -0.002524 0.001323 111 121 120
-0.063158 -0.004784 0.001324 120 127 134
-0.037502 0.001411 0.004579 144 149 145
0.076776 0.005186 0.001324 67 62 33
-0.033139 -0.002326 0.001324 68 88 84
-0.074524 -0.000679 0.001324 126 140 139
-0.037780 0.001810 0.004579 145 152 148
0.073925 0.010971 0.001325 58 63 61
-0.049118 0.018212 0.001325 90 84 57
-0.054261 0.025441 0.001325 121 127 129
-0.079736 0.019843 0.001325 158 171 173
-0.070652 0.000583 0.001325 138 149 149
0.070922 0.009306 0.001325 105 105 101
0.064611 0.003345 0.001325 120 125 120
0.075116 0.005569 0.001326 76 72 61
0.074255 0.011022 0.001326 50 50 39
-0.037186 0.003167 0.004578 144 152 152
-0.058224 -0.004201 0.001326 116 128 128
0.073983 0.005594 0.001326 75 71 57
-0.056795 0.020530 0.001326 95 95 85
-0.071280 0.000362 0.001326 139 150 150
0.071493 0.007923 0.001326 122 130 128
-0.033821 0.012572 0.001326 35 47 48
0.062502 0.002960 0.001326 123 125 120
0.093194 0.011815 0.001327 67 62 57
-0.079017 0.012374 0.001327 112 119 112
0.067332 0.003512 0.001327 7 15 21
0.071652 0.007535 0.001327 121 131 129
-0.045931 0.015835 0.001327 40 49 33
0.070789 0.009885 0.001327 94 99 94
-0.087433 -0.002084 0.001327 93 113 115
-0.077100 -0.008283 0.001327 116 126 128
-0.024056 0.002036 0.001327 85 91 88
0.074696 0.011094 0.001327 61 45 27
-0.078017 -0.001410 0.001327 138 144 145
-0.069937 -0.002956 0.004578 139 147 148
0.072540 0.006000 0.001327 104 109 101
-0.042784 0.012207 0.001328 7 8 8
-0.071028 0.000454 0.001328 143 148 146
-0.058675 0.020648 0.001328 93 97 87
-0.079079 0.020347 0.001328 162 172 172
-0.046880 -0.002961 0.001328 108 119 123
0.065871 0.002636 0.001328 3 6 6
0.073562 0.005977 0.001329 85 88 79
0.076964 0.005143 0.001329 65 61 40
-0.041574 0.010121 0.001329 11 12 10
-0.036209 0.002280 0.004577 143 149 149
-0.041064 0.004786 0.001329 32 49 50
0.071782 0.006452 0.001329 122 124 122
-0.052911 -0.001792 0.004577 146 152 156
-0.084173 -0.006906 0.001330 116 131 136
0.071655 0.005983 0.001330 118 119 113
-0.035165 0.002539 0.004576 136 147 145
-0.052582 0.019795 0.001330 69 82 73
0.071262 0.008884 0.001330 112 121 111
-0.058443 -0.004207 0.001330 114 127 124
0.061799 0.001616 0.001331 4 0 3
-0.055076 0.003725 0.001331 131 140 138
-0.064267 0.002305 0.001331 136 148 148
0.063614 0.003330 0.001331 114 125 119
-0.086484 0.011065 0.001331 146 157 154
-0.088113 0.002858 0.001331 61 66 64
-0.055966 -0.003887 0.001331 108 119 123
-0.078900 0.020488 0.001331 164 170 173
0.073028 0.010936 0.001332 60 62 23
-0.074098 0.017202 0.001332 111 117 114
-0.027579 -0.002152 0.001332 81 92 94
-0.065119 -0.005152 0.001333 107 121 126
-0.062927 -0.003165 0.004576 140 147 151
-0.076606 0.021911 0.001333 137 139 143
-0.029305 0.009978 0.001333 50 50 52
-0.074855 -0.007565 0.001333 116 125 127
-0.039975 -0.002503 0.001333 97 104 113
-0.066845 0.025085 0.001334 134 149 146
0.072007 0.006927 0.001334 121 126 123
-0.050917 0.024838 0.001334 105 111 109
0.077186 0.005137 0.001335 63 61 44
-0.087094 -0.002999 0.001335 113 125 134
-0.037354 -0.002449 0.001335 89 102 96
-0.070308 0.019010 0.001335 108 111 99
0.087378 0.007047 0.001335 58 54 35
-0.041745 0.004176 0.001335 57 59 65
-0.080458 0.009932 0.001336 116 126 123
-0.086045 0.011985 0.001336 145 158 152
-0.054933 0.020410 0.001336 96 90 75
0.072061 0.006005 0.001336 113 116 101
-0.081725 0.002060 0.001336 107 117 115
-0.041398 0.009710 0.001336 12 13 11
0.073917 0.005923 0.001337 81 86 73
-0.037197 0.001754 0.004576 147 152 150
-0.077028 0.021678 0.001337 142 155 156
-0.050879 0.000716 0.004576 131 139 140
-0.034867 -0.002516 0.001338 70 97 97
-0.043199 -0.002725 0.001338 97 108 113
-0.063377 0.002512 0.001338 132 143 145
-0.052199 -0.001714 0.004576 140 152 155
-0.025749 0.000050 0.001338 82 95 99
-0.084707 -0.006417 0.001338 122 133 137
-0.037116 -0.002464 0.001338 89 102 97
-0.046882 0.000777 0.004576 134 145 146
-0.057424 -0.004143 0.001339 116 125 127
-0.040527 0.019103 0.001339 64 75 69
0.092840 0.012018 0.001340 69 62 56
-0.037542 0.000969 0.004576 142 147 145
0.071902 0.007878 0.001340 122 129 126
0.072332 0.006340 0.001340 118 119 110
0.062820 0.001860 0.001340 11 6 14
-0.037511 0.002205 0.004576 146 152 150
-0.084417 -0.006685 0.001340 115 128 137
0.063103 0.001927 0.001341 20 6 8
0.059390 0.002241 0.001341 118 123 117
-0.080127 0.010557 0.001341 119 124 121
-0.062736 0.020604 0.001341 96 102 87
0.074336 0.005405 0.001341 72 71 54
-0.042385 0.011565 0.001341 9 10 9
-0.059092 -0.002540 0.004575 139 152 154
-0.087805 -0.000842 0.001342 81 92 88
0.072202 0.007417 0.001342 122 128 125
0.065488 0.003732 0.001342 117 124 119
0.074777 0.005536 0.001342 69 72 63
-0.029779 -0.002309 0.001342 51 67 60
0.079746 0.005433 0.001342 66 62 48
-0.066376 0.019936 0.001342 91 101 96
0.072674 0.006541 0.001342 117 115 109
-0.079655 -0.008887 0.001342 129 133 137
-0.045408 0.015314 0.001342 33 41 29
-0.078501 0.020793 0.001342 160 172 176
0.075171 0.011136 0.001342 71 70 52
0.071256 0.009697 0.001342 98 102 93
0.072454 0.006887 0.001342 118 123 120
-0.034124 -0.002464 0.001342 75 95 96
-0.059881 -0.002626 0.004574 152 156 160
-0.041641 0.010273 0.001343 11 11 10
0.073684 0.010814 0.001343 72 69 69
-0.048415 0.017765 0.001343 81 86 67
-0.037397 0.002694 0.004574 148 152 152
0.073226 0.006415 0.001343 101 105 99
-0.025261 0.008757 0.001343 13 38 37
0.080107 0.005961 0.001343 70 69 55
-0.084946 -0.006176 0.001343 121 132 136
0.064716 0.001722 0.001343 3 0 0
0.077876 0.005130 0.001344 74 58 42
0.065106 0.003404 0.001344 116 123 121
-0.033253 0.012151 0.001344 44 54 48
-0.032895 -0.002290 0.001344 69 88 85
0.081445 0.006242 0.001344 65 66 46
0.079872 0.012146 0.001344 63 50 40
0.078103 0.005109 0.001344 71 59 41
0.074077 0.005843 0.001344 77 78 63
-0.081003 0.008519 0.001344 115 121 118
0.082944 0.006405 0.001344 61 56 36
-0.053210 0.025317 0.001344 115 123 123
-0.036854 -0.002481 0.001344 86 102 98
0.077296 0.005253 0.001345 67 63 51
0.066650 0.004331 0.001345 119 123 119
0.064160 0.003331 0.001345 117 124 117
0.063563 0.002008 0.001345 1 10 0
-0.036375 -0.002508 0.001345 85 102 98
-0.080071 0.019589 0.001345 158 167 168
0.072797 0.010918 0.001345 48 63 45
-0.065132 0.020208 0.001345 95 105 100
-0.054913 -0.003761 0.001345 112 118 119
0.063430 0.003278 0.001346 113 125 119
-0.047101 0.023550 0.001346 86 97 100
-0.081666 0.005843 0.001346 108 118 120
-0.069979 0.019093 0.001346 106 108 98
0.063811 0.001948 0.001346 0 9 1
0.075789 0.005712 0.001346 85 74 63
-0.081899 0.003869 0.001347 105 115 112
-0.047480 0.023682 0.001347 90 96 98
0.063964 0.003339 0.001347 115 124 117
-0.069504 -0.006160 0.001347 113 131 133
-0.088029 0.004842 0.001347 67 77 71
-0.081534 -0.000800 0.001347 119 125 127
-0.041946 -0.002585 0.001347 101 113 113
-0.061700 0.020630 0.001347 87 94 78
-0.040905 0.005152 0.001347 39 50 54
0.071607 0.009288 0.001347 106 111 104
0.071783 0.008801 0.001347 116 123 114
0.071949 0.008302 0.001347 121 127 122
-0.079551 0.019975 0.001348 163 173 170
-0.050828 -0.001567 0.004574 144 154 156
0.073205 0.010781 0.001348 82 79 58
-0.076575 -0.001181 0.001348 140 145 147
0.072934 0.006882 0.001348 115 119 114
-0.081180 -0.008719 0.001349 133 141 140
-0.088077 0.001555 0.001349 39 54 47
-0.080848 0.009003 0.001349 114 124 122
0.064936 0.001764 0.001349 5 1 0
0.063322 0.001951 0.001349 20 5 3
0.075320 0.005771 0.001349 83 77 66
-0.026946 -0.001347 0.001350 96 113 112
-0.084800 0.014308 0.001350 183 189 188
-0.073406 -0.007165 0.001350 120 137 140
-0.034400 0.002945 0.004574 137 145 146
-0.069538 0.019219 0.001351 107 107 99
-0.025049 0.008703 0.001351 15 39 37
-0.041480 0.004332 0.001351 52 58 64
-0.025812 0.008875 0.001351 11 28 23
-0.036586 -0.002496 0.001351 84 102 100
0.059449 0.001300 0.001351 17 22 41
-0.072455 -0.004871 0.004574 146 158 154
0.071474 0.010191 0.001351 94 99 89
-0.048380 -0.003050 0.001351 108 120 119
-0.042861 0.003832 0.001352 117 129 130
-0.045193 0.015102 0.001352 30 41 26
0.072314 0.007909 0.001352 122 127 126
0.073340 0.006910 0.001352 112 113 112
0.075015 0.005737 0.001352 75 75 67
-0.027451 0.009347 0.001352 36 52 52
0.073994 0.006320 0.001352 89 95 82
0.072987 0.007312 0.001352 119 122 118
0.074246 0.005797 0.001353 78 78 63
0.058840 0.001009 0.001353 19 5 4
-0.041976 0.010898 0.001354 10 23 24
-0.059913 0.025749 0.001354 129 135 139
0.084042 0.006425 0.001354 57 53 44
0.074891 0.005676 0.001354 72 74 66
0.074234 0.006004 0.001354 78 82 70
-0.085094 0.013814 0.001354 174 187 183
-0.086999 0.009436 0.001354 138 143 142
0.076259 0.005695 0.001355 75 71 60
-0.087589 0.007216 0.001355 109 108 104
0.079822 0.005619 0.001355 68 65 49
0.059797 0.002293 0.001355 116 122 117
-0.071217 -0.003589 0.004574 133 145 150
-0.024839 0.008648 0.001355 13 39 40
0.071652 0.009708 0.001355 97 104 98
-0.080351 0.010156 0.001356 117 126 122
-0.024275 0.008500 0.001356 13 22 20
0.074456 0.005617 0.001356 75 74 58
-0.038816 -0.002460 0.001356 89 102 110
-0.044435 -0.002851 0.001356 106 114 117
0.061042 0.001798 0.001356 9 22 10
0.072580 0.010847 0.001356 61 71 59
-0.039980 0.018653 0.001356 56 71 70
0.085351 0.006948 0.001357 67 60 39
0.079163 0.004966 0.001357 69 63 47
-0.042677 0.003864 0.001357 113 124 121
-0.073765 -0.005447 0.004573 149 158 159
-0.081701 0.001708 0.001357 111 120 122
-0.081692 0.018306 0.001357 170 176 173
-0.068777 -0.004150 0.004573 139 149 152
-0.039548 0.000064 0.004573 154 159 159
-0.035226 0.005370 0.004573 135 147 142
0.076567 0.005599 0.001357 75 69 41
-0.087223 -0.002670 0.001357 115 124 122
-0.087382 0.008079 0.001358 112 122 126
-0.048361 0.023994 0.001358 95 106 106
-0.051123 -0.003331 0.001358 115 120 125
0.072002 0.010599 0.001358 89 90 79
0.077023 0.005413 0.001358 69 63 45
-0.071963 0.018444 0.001358 123 128 118
0.067099 0.004426 0.001358 115 126 122
-0.072211 0.000011 0.001358 138 149 149
0.060284 0.001773 0.001359 12 23 29
-0.082440 -0.008271 0.001359 130 143 149
-0.067401 -0.003924 0.004572 135 150 154
0.080897 0.006233 0.001359 72 70 53
0.074853 0.005818 0.001359 76 77 67
-0.084472 0.014811 0.001359 173 182 184
-0.056752 0.003622 0.001359 127 139 140
0.069054 0.004267 0.001359 116 120 118
-0.028987 0.009898 0.001359 44 48 37
-0.050859 0.019305 0.001360 93 92 70
0.076892 0.011765 0.001360 62 56 41
0.074484 0.005867 0.001360 79 76 62
0.077730 0.005344 0.001360 70 66 50
0.073842 0.010700 0.001360 68 77 79
-0.071317 0.018715 0.001360 111 117 110
-0.039834 0.018519 0.001360 56 69 65
0.072819 0.007801 0.001360 117 125 123
0.076742 0.005545 0.001361 74 67 42
-0.047333 0.023628 0.001361 84 96 98
0.077404 0.005412 0.001361 68 66 53
-0.040761 0.007576 0.001361 12 30 14
-0.044950 0.003691 0.001362 130 135 138
0.073851 0.006798 0.001362 102 105 102
-0.056403 0.025650 0.001362 121 134 135
-0.087930 0.005407 0.001362 68 75 73
0.085620 0.007041 0.001362 69 65 44
0.074103 0.010724 0.001363 74 78 71
0.073351 0.010617 0.001363 83 81 69
0.075634 0.011236 0.001363 71 71 62
-0.063767 0.020478 0.001363 94 96 89
-0.051721 0.003780 0.001363 124 137 137
-0.050877 -0.003303 0.001364 116 122 125
-0.054254 0.003747 0.001364 130 139 140
-0.043015 0.000479 0.004572 142 147 149
-0.044960 0.014881 0.001365 27 43 31
0.064422 0.003316 0.001365 118 124 118
0.073087 0.010632 0.001365 83 83 62
0.072303 0.008710 0.001365 122 128 122
-0.075498 -0.005640 0.004571 142 155 155
-0.055640 0.020482 0.001365 90 88 72
-0.085926 -0.004991 0.001365 120 129 140
-0.056922 -0.004048 0.001365 118 121 128
-0.037549 -0.002431 0.001366 90 99 100
-0.067613 0.019673 0.001366 102 110 105
-0.033753 -0.002405 0.001366 78 93 93
-0.074438 -0.004813 0.004570 134 146 151
-0.080696 0.019148 0.001366 166 173 174
-0.047917 -0.003021 0.001367 107 118 121
-0.078348 0.013266 0.001367 111 121 111
-0.070614 -0.003267 0.004570 141 147 149
-0.034142 0.003283 0.004570 134 146 144
0.065756 0.002468 0.001367 2 6 0
-0.079899 0.010977 0.001367 115 122 119
-0.034561 0.004844 0.004570 142 146 145
0.073683 0.007298 0.001368 110 115 112
0.072732 0.010732 0.001368 77 81 68
-0.085315 0.013408 0.001368 175 186 184
-0.070889 0.018866 0.001368 104 114 109
-0.049627 -0.003168 0.001368 113 118 121
0.072082 0.009614 0.001368 109 109 103
-0.026604 0.009064 0.001368 42 48 48
0.072647 0.008296 0.001368 124 126 126
-0.055673 0.025577 0.001368 125 133 131
-0.063882 0.025534 0.001369 134 148 148
-0.062565 0.002665 0.001369 130 144 144
-0.038435 0.017007 0.001369 44 57 60
0.061951 0.001591 0.001369 6 0 1
0.065226 0.001807 0.001369 12 1 0
0.073358 0.007748 0.001369 120 122 114
0.078553 0.005092 0.001369 74 61 42
-0.049959 0.003751 0.001369 122 130 132
-0.048593 -0.003064 0.001369 109 118 118
-0.078211 0.020996 0.001369 158 167 169
0.074663 0.006269 0.001370 85 91 83
-0.043289 0.012968 0.001370 14 14 9
0.071984 0.010032 0.001370 100 103 101
0.073607 0.010552 0.001370 81 88 86
-0.077800 0.013926 0.001370 110 115 104
0.063991 0.001818 0.001370 0 7 2
-0.037753 -0.002423 0.001370 88 97 100
0.079396 0.011992 0.001371 63 53 41
-0.081807 0.002986 0.001371 111 113 116
-0.058182 0.020640 0.001371 88 94 86
-0.027343 -0.001864 0.001371 90 99 102
-0.061707 -0.002958 0.004569 146 152 155
-0.023947 0.002195 0.001372 89 95 95
-0.055721 0.003673 0.001372 121 137 138
0.080840 0.012235 0.001372 55 54 45
0.081669 0.006313 0.001372 68 69 44
0.072405 0.010640 0.001372 78 87 79
-0.035949 -0.002512 0.001372 85 97 97
-0.086244 0.011583 0.001372 149 160 150
-0.086624 0.010657 0.001372 147 160 161
0.076034 0.005981 0.001373 85 82 72
-0.025088 0.000776 0.001373 73 79 78
-0.064170 -0.003368 0.004569 142 142 144
-0.062000 -0.004612 0.001373 123 135 137
-0.054860 0.025495 0.001373 118 131 132
-0.029894 0.010104 0.001373 25 59 66
-0.057445 0.020589 0.001373 93 93 82
-0.068224 -0.002159 0.004569 134 143 146
-0.072416 -0.000063 0.001373 141 148 148
-0.052836 0.003743 0.001374 133 143 140
0.074373 0.006715 0.001374 102 102 92
-0.046661 -0.002938 0.001374 108 119 124
-0.080027 0.010764 0.001374 118 124 121
-0.040819 0.007874 0.001374 12 16 17
-0.043170 0.003785 0.001374 123 134 134
-0.052529 -0.001771 0.004569 142 151 156
-0.063129 0.002558 0.001374 131 143 143
-0.027634 0.009404 0.001375 35 52 54
-0.042811 0.021033 0.001375 74 86 82
-0.036168 -0.002507 0.001375 86 100 99
-0.041026 0.019492 0.001375 66 66 64
-0.052920 0.019953 0.001375 69 84 78
0.072818 0.010580 0.001376 86 86 73
0.060521 0.001764 0.001376 9 22 23
0.072427 0.009255 0.001376 118 124 117
-0.053675 -0.003608 0.001377 110 121 127
-0.053781 0.020242 0.001377 93 88 71
-0.074254 -0.000617 0.001377 133 142 143
0.072630 0.010609 0.001377 79 84 73
-0.062506 0.020625 0.001377 94 100 85
0.058669 0.002060 0.001377 109 114 111
-0.068617 0.019486 0.001377 103 111 110
-0.087552 -0.001733 0.001377 96 106 104
0.067090 0.003412 0.001378 11 14 19
0.076744 0.005761 0.001378 81 74 47
0.077583 0.005604 0.001378 67 71 57
-0.081829 0.005061 0.001378 104 117 110
0.073268 0.008244 0.001378 119 123 118
-0.034426 -0.002480 0.001378 71 96 97
0.065642 0.002324 0.001379 9 6 0
-0.053971 0.003744 0.001379 131 139 139
-0.034255 0.004424 0.004569 134 146 145
-0.040981 0.008591 0.001379 13 16 12
0.060029 0.002312 0.001379 114 120 116
0.068382 0.003646 0.001380 46 42 47
-0.036992 0.001298 0.004568 141 152 151
0.073561 0.008019 0.001380 121 123 114
0.073418 0.010379 0.001380 86 93 88
0.060081 0.001727 0.001380 9 27 29
0.067537 0.004487 0.001380 120 127 125
0.072287 0.010327 0.001380 96 99 94
0.058949 0.002118 0.001380 115 121 117
0.077797 0.005616 0.001380 66 72 56
0.075515 0.006259 0.001380 92 94 79
0.065412 0.002006 0.001381 17 2 0
0.085738 0.012571 0.001381 56 59 46
-0.087909 -0.000342 0.001381 80 82 85
-0.043814 0.021688 0.001381 78 88 82
-0.021482 0.007980 0.001381 0 1 0
0.072773 0.008832 0.001381 125 127 122
0.068137 0.004534 0.001381 124 126 123
0.068642 0.004410 0.001381 124 128 125
0.091462 0.012489 0.001381 67 60 50
-0.067291 0.001549 0.001382 145 160 157
0.073014 0.008571 0.001382 124 126 122
-0.035685 0.002109 0.004568 139 146 147
-0.055972 0.025604 0.001382 125 131 134
-0.073089 -0.004390 0.004568 146 150 157
-0.078821 0.012678 0.001383 110 117 114
-0.039541 -0.002485 0.001383 93 105 109
-0.066291 -0.005431 0.001383 105 117 123
-0.074541 0.022887 0.001383 140 142 141
0.077089 0.005697 0.001383 74 68 50
0.061510 0.001631 0.001383 2 7 4
-0.065094 0.025347 0.001383 137 146 150
0.072400 0.010003 0.001383 107 110 101
0.073800 0.007776 0.001384 117 120 115
-0.041205 0.009268 0.001384 12 14 11
-0.049640 0.024465 0.001384 100 108 109
-0.031706 -0.002220 0.001384 62 79 79
0.073603 0.008236 0.001384 121 123 115
-0.084683 0.014483 0.001384 179 186 188
-0.079724 -0.001432 0.001384 123 136 130
0.058602 0.000919 0.001384 16 4 5
0.077331 0.005693 0.001385 72 67 52
0.073003 0.010351 0.001385 95 93 83
-0.088116 0.003148 0.001385 58 67 62
0.075033 0.006546 0.001385 90 101 88
0.072535 0.010369 0.001385 97 98 86
0.073964 0.010432 0.001385 95 91 82
-0.072179 0.023782 0.001385 132 141 142
-0.047198 0.003670 0.001385 127 131 133
-0.030849 0.010469 0.001385 40 48 49
-0.028372 0.009706 0.001385 38 53 50
-0.067957 0.019615 0.001386 99 111 105
-0.078895 -0.001459 0.001386 133 144 143
-0.088120 0.003387 0.001386 53 68 68
-0.081634 0.000917 0.001386 113 126 125
-0.040816 0.005610 0.001386 26 46 33
-0.085718 0.012609 0.001386 160 170 169
0.066683 0.003187 0.001386 15 11 3
0.073337 0.008631 0.001387 120 125 119
-0.080134 -0.008887 0.001387 124 127 134
-0.031036 0.010544 0.001387 36 53 48
0.062762 0.003008 0.001387 116 126 116
0.072619 0.009714 0.001387 115 122 113
-0.080259 0.010352 0.001387 118 125 122
-0.039647 0.018324 0.001387 55 65 60
0.074419 0.010572 0.001388 90 86 73
0.077905 0.005732 0.001388 67 73 64
0.074045 0.007570 0.001388 112 117 111
0.077999 0.005588 0.001388 71 72 56
0.073623 0.008471 0.001388 121 123 118
-0.041346 0.004415 0.001388 42 55 55
0.073160 0.008853 0.001388 126 126 121
-0.080559 0.009751 0.001389 117 126 123
-0.053885 0.025384 0.001389 120 130 128
-0.071734 -0.003675 0.004568 131 141 146
-0.078775 -0.008758 0.001389 123 134 134
0.078844 0.011865 0.001389 67 56 50
0.073798 0.008072 0.001389 122 124 117
-0.026839 -0.001188 0.001389 96 113 115
-0.041725 -0.002554 0.001389 102 115 113
-0.033458 0.012289 0.001390 40 52 48
0.074849 0.006836 0.001390 100 107 100
-0.053170 0.000724 0.004567 133 142 140
0.073786 0.008280 0.001390 122 124 119
0.072704 0.010195 0.001391 100 98 86
0.074423 0.007256 0.001391 108 112 106
-0.074012 -0.004662 0.004567 137 148 150
0.060472 0.002362 0.001391 110 113 111
-0.040175 0.018803 0.001391 60 73 71
0.073684 0.010203 0.001391 104 101 91
-0.036409 0.001717 0.004567 142 152 152
0.078185 0.005342 0.001392 72 67 44
0.073206 0.010189 0.001392 94 101 99
-0.041066 0.000720 0.004567 141 149 149
-0.037844 0.000455 0.004566 143 148 148
0.064813 0.001514 0.001393 1 0 0
-0.036853 0.004918 0.004566 141 149 149
0.065032 0.001530 0.001393 1 1 0
-0.022597 0.003964 0.001394 103 113 109
0.073411 0.010149 0.001394 95 102 100
0.073620 0.008774 0.001394 121 123 118
-0.051946 0.003764 0.001394 128 138 138
0.072932 0.010080 0.001394 97 106 99
-0.057003 0.003601 0.001394 128 139 141
0.072771 0.009923 0.001394 106 117 107
-0.080844 -0.001296 0.001395 115 129 131
-0.064006 -0.004917 0.001395 121 129 128
-0.085531 0.012982 0.001395 171 182 180
-0.064883 0.025381 0.001395 136 146 148
-0.073826 -0.000512 0.001395 133 144 146
-0.077829 -0.001412 0.001395 138 145 143
-0.059383 0.020671 0.001396 92 91 79
0.073280 0.009251 0.001396 129 133 127
-0.054327 -0.003675 0.001396 108 118 123
0.074104 0.007789 0.001397 116 119 113
-0.052741 0.019899 0.001397 67 81 76
-0.072020 -0.003740 0.004566 128 140 145
0.072923 0.009778 0.001397 106 120 113
-0.087860 0.005701 0.001397 74 79 78
-0.088013 0.000673 0.001397 64 61 68
0.077218 0.005866 0.001397 78 71 54
-0.075844 0.015782 0.001397 103 110 99
0.073955 0.008467 0.001397 122 125 119
-0.035495 -0.002510 0.001397 86 96 92
0.075253 0.006782 0.001397 101 107 96
0.073586 0.010046 0.001397 104 103 97
-0.063394 0.020554 0.001398 87 97 89
0.073090 0.009700 0.001398 113 122 117
-0.050679 0.024756 0.001398 108 111 109
-0.073499 0.017635 0.001398 115 128 117
-0.081196 0.007850 0.001398 114 123 122
0.073055 0.009895 0.001398 106 117 112
0.078062 0.005856 0.001398 69 72 67
-0.081484 0.006723 0.001399 112 122 122
0.073983 0.008678 0.001399 121 125 119
0.077689 0.005893 0.001399 67 70 62
0.073251 0.009965 0.001399 105 111 110
-0.031230 0.010628 0.001400 44 56 48
-0.048808 0.003693 0.001400 118 130 130
0.073453 0.009913 0.001400 113 113 109
-0.044703 0.003689 0.001400 128 138 141
-0.081354 0.007235 0.001400 112 123 124
-0.083093 -0.007834 0.001400 137 139 140
-0.076754 0.015006 0.001400 95 113 108
-0.073934 -0.005576 0.004565 151 158 159
-0.029418 -0.002318 0.001401 50 66 63
0.074034 0.008227 0.001401 122 125 119
-0.088095 0.002275 0.001401 62 72 62
0.074114 0.007977 0.001401 120 122 116
-0.055759 -0.003851 0.001401 107 120 124
-0.086428 0.011181 0.001401 147 158 153
0.073867 0.009023 0.001402 121 122 118
-0.087148 0.008896 0.001402 141 147 134
-0.057773 -0.004170 0.001402 114 126 126
0.076406 0.006248 0.001402 86 91 78
0.074351 0.007667 0.001402 115 118 111
-0.054399 0.020363 0.001402 100 86 63
-0.057065 0.020576 0.001403 93 91 78
-0.045093 0.022600 0.001403 76 89 86
0.078412 0.005191 0.001403 74 62 40
-0.052009 -0.003436 0.001403 103 114 114
0.076077 0.011274 0.001403 75 74 57
-0.036640 0.015123 0.001403 43 53 51
-0.086732 0.010312 0.001403 144 161 160
-0.057992 -0.004181 0.001403 114 127 126
-0.087246 0.008546 0.001403 137 145 139
-0.080813 0.019059 0.001403 167 177 175
0.060796 0.001744 0.001403 94 101 97
0.073572 0.009651 0.001404 127 126 117
-0.025968 0.008882 0.001404 22 27 19
-0.078611 -0.001461 0.001404 137 145 145
0.076974 0.006030 0.001404 86 78 63
0.079856 0.005948 0.001404 72 73 62
-0.042566 0.000553 0.004564 140 148 151
0.058095 0.001883 0.001404 94 96 86
0.074114 0.008854 0.001404 120 126 119
-0.042733 -0.002654 0.001405 94 108 111
0.061819 0.002653 0.001405 119 121 119
-0.052576 0.003739 0.001405 133 141 139
0.073783 0.009858 0.001405 114 113 99
-0.077569 -0.001381 0.001405 138 145 140
-0.075513 0.022450 0.001405 135 144 148
0.084712 0.006738 0.001405 66 59 52
0.073791 0.009374 0.001405 120 123 118
0.077382 0.005974 0.001405 76 71 58
-0.050214 0.018949 0.001405 75 84 73
0.074865 0.010608 0.001405 91 95 92
0.074311 0.007809 0.001406 117 119 112
-0.082754 0.017019 0.001406 172 184 181
-0.043443 0.021446 0.001406 78 88 85
-0.037146 0.015623 0.001406 41 51 42
-0.052037 0.025125 0.001406 111 121 119
-0.081131 -0.001208 0.001406 116 128 127
0.057922 0.000910 0.001406 27 23 22
0.073967 0.009211 0.001407 121 123 118
-0.077894 0.021190 0.001407 155 164 161
-0.048134 -0.003026 0.001407 108 119 121
-0.049079 0.024258 0.001407 102 110 106
-0.081507 -0.000989 0.001407 118 126 127
0.074226 0.008675 0.001407 121 127 120
-0.028868 -0.002353 0.001407 50 55 65
-0.043127 0.012752 0.001408 16 16 7
-0.080643 0.009571 0.001408 117 125 122
0.059635 0.001371 0.001408 19 27 40
0.075655 0.006812 0.001408 105 110 94
0.078233 0.005651 0.001408 71 73 54
0.064515 0.001532 0.001408 7 0 0
-0.036031 0.005928 0.004564 132 139 141
0.074167 0.009991 0.001408 111 114 103
-0.081320 -0.001132 0.001409 116 127 127
-0.047551 0.017250 0.001409 63 70 50
0.074165 0.009138 0.001409 121 124 119
-0.072317 -0.006891 0.001409 124 134 139
-0.056289 0.020542 0.001409 92 91 82
-0.076245 -0.001134 0.001409 138 149 145
0.080554 0.006286 0.001409 76 76 61
-0.062289 0.020640 0.001410 94 97 84
0.061658 0.002605 0.001410 117 121 119
-0.060481 -0.002753 0.004564 147 149 155
0.074278 0.008962 0.001410 120 127 119
-0.081260 0.007609 0.001410 114 123 122
-0.023509 0.002767 0.001411 92 103 103
0.060249 0.002330 0.001411 111 115 114
0.074003 0.009599 0.001411 116 121 116
-0.034556 0.013127 0.001411 39 55 59
-0.073974 0.023124 0.001411 136 141 146
-0.046088 0.023151 0.001411 76 93 93
0.076530 0.011423 0.001412 70 66 50
-0.049630 0.018586 0.001412 88 79 55
0.081224 0.006341 0.001412 71 73 55
-0.061835 0.025663 0.001412 135 143 146
0.074115 0.009377 0.001412 119 122 118
0.074548 0.007776 0.001412 115 118 112
-0.040629 -0.002490 0.001412 102 108 109
-0.040567 -0.000242 0.004564 146 162 163
0.074293 0.008185 0.001412 121 124 118
-0.059459 0.025766 0.001412 130 138 140
0.080288 0.012103 0.001412 58 55 38
-0.054629 0.025460 0.001412 120 130 132
-0.046629 0.023362 0.001413 82 94 95
0.084430 0.006589 0.001413 62 58 54
-0.042176 0.003981 0.001413 69 75 82
-0.081384 0.018612 0.001413 168 177 176
-0.044480 0.003693 0.001413 124 139 142
-0.045819 0.003636 0.001413 122 134 134
0.074791 0.007657 0.001413 114 117 111
-0.065459 -0.005228 0.001413 107 122 124
0.064275 0.001591 0.001414 5 0 0
-0.063505 -0.003317 0.004564 136 145 153
-0.081780 0.002584 0.001414 107 112 110
-0.046437 -0.002914 0.001414 109 120 125
0.078234 0.006049 0.001414 73 73 68
-0.055145 0.020459 0.001414 88 81 65
-0.073562 -0.004516 0.004563 138 145 147
0.066213 0.002798 0.001414 4 7 1
0.075342 0.007307 0.001414 112 118 109
0.078902 0.005071 0.001415 72 64 45
-0.050626 0.003762 0.001415 124 135 132
-0.053416 -0.001876 0.004563 143 156 155
-0.043836 -0.000997 0.004563 158 163 162
0.094210 0.010302 0.001415 51 57 50
0.062199 0.001619 0.001415 0 7 0
-0.033295 -0.002321 0.001415 68 87 84
-0.074379 0.022948 0.001415 140 141 140
0.074361 0.008457 0.001415 121 125 119
-0.032690 -0.002248 0.001415 67 87 85
0.074411 0.009144 0.001416 121 125 120
-0.064578 0.020335 0.001416 89 99 94
-0.033968 0.003920 0.004563 131 146 143
0.074595 0.010154 0.001416 101 105 101
-0.046403 0.016303 0.001416 40 41 33
-0.076576 0.015183 0.001416 96 114 108
-0.077577 -0.008432 0.001416 122 130 133
0.074465 0.007973 0.001416 118 121 115
-0.071600 0.018636 0.001417 114 119 112
-0.041467 0.009937 0.001417 11 14 10
-0.075267 -0.005094 0.004562 141 150 152
0.074445 0.008674 0.001417 122 127 120
-0.023793 0.002409 0.001417 92 99 100
-0.025551 0.008786 0.001417 10 36 34
-0.062161 0.002724 0.001417 130 145 148
0.064111 0.001648 0.001417 2 5 0
0.077270 0.006143 0.001417 85 78 66
-0.069378 0.019290 0.001418 107 108 100
-0.021694 0.005252 0.001418 107 118 113
-0.035207 0.002103 0.004562 141 146 147
-0.072917 -0.007046 0.001418 121 138 141
0.083387 0.006501 0.001419 62 61 43
-0.080528 -0.001368 0.001419 116 130 130
-0.080527 0.019253 0.001419 164 174 174
-0.081209 0.018756 0.001419 169 178 175
-0.066773 0.019868 0.001419 97 102 102
0.087572 0.012687 0.001419 69 65 43
-0.087667 0.006669 0.001419 98 98 94
0.074558 0.008912 0.001419 122 127 121
0.074440 0.009344 0.001420 119 121 114
-0.050425 0.019082 0.001420 78 85 71
0.076161 0.006712 0.001420 101 112 98
0.077078 0.006222 0.001420 89 84 74
-0.071133 -0.006590 0.001420 120 132 135
-0.073147 0.017829 0.001420 123 126 114
0.077520 0.006146 0.001420 82 73 61
-0.034444 0.002515 0.004562 139 145 147
0.074467 0.009652 0.001421 115 115 108
0.078443 0.006059 0.001421 74 75 61
-0.043007 0.012579 0.001421 15 15 7
-0.043728 0.003719 0.001421 127 140 136
0.078411 0.005843 0.001421 72 74 56
0.077986 0.006150 0.001422 75 69 68
0.075485 0.010817 0.001422 86 90 82
-0.051451 0.003762 0.001422 124 138 139
-0.081934 0.004402 0.001422 107 117 117
0.082303 0.006496 0.001422 76 67 40
0.074622 0.009162 0.001422 120 124 116
-0.024509 0.001461 0.001422 77 85 80
-0.022973 0.008250 0.001422 4 1 3
-0.081887 0.003553 0.001423 105 117 116
-0.044228 -0.002818 0.001423 107 111 115
0.074536 0.008251 0.001423 120 122 116
-0.029557 0.009971 0.001423 43 56 62
0.075163 0.007776 0.001423 118 121 112
-0.049855 0.018735 0.001423 85 81 64
0.074817 0.007966 0.001423 117 120 113
-0.053408 0.003731 0.001423 133 144 143
-0.079580 0.011561 0.001423 115 121 116
0.067540 0.003540 0.001423 3 19 26
-0.044742 0.014687 0.001424 36 44 40
0.074629 0.008100 0.001424 118 121 115
-0.076935 0.014851 0.001424 99 117 113
0.077732 0.006167 0.001424 75 71 64
-0.045580 0.003641 0.001424 123 135 137
0.074617 0.009457 0.001424 117 118 111
-0.058379 -0.002499 0.004561 141 148 152
-0.039326 0.017968 0.001425 53 60 54
-0.077284 0.014512 0.001425 100 110 111
0.064922 0.001347 0.001425 0 0 0
-0.082452 0.017389 0.001426 171 181 178
-0.051403 0.019559 0.001426 87 84 61
0.074687 0.008698 0.001426 122 126 119
-0.085920 0.012197 0.001427 152 170 168
-0.046928 0.016778 0.001427 49 50 48
-0.087594 -0.001604 0.001427 92 99 97
-0.060546 0.020661 0.001427 90 91 73
-0.080416 -0.008861 0.001427 121 129 135
0.074771 0.009294 0.001427 120 122 115
-0.067114 -0.003909 0.004561 132 145 149
-0.054567 0.003726 0.001428 136 143 145
0.074741 0.008224 0.001428 119 122 115
-0.087860 -0.000621 0.001428 84 85 82
-0.041498 -0.002525 0.001428 99 112 113
0.079570 0.005751 0.001428 73 70 60
0.082586 0.006556 0.001428 77 66 44
0.062396 0.001676 0.001428 0 7 7
-0.057437 -0.002377 0.004561 146 150 148
-0.044821 -0.002859 0.001429 108 117 122
0.074838 0.009087 0.001429 123 125 118
-0.043988 -0.002791 0.001429 107 110 114
-0.042096 0.000601 0.004560 137 150 154
-0.068015 -0.005794 0.001429 111 123 127
0.074772 0.008456 0.001430 122 124 118
-0.079683 0.011393 0.001430 115 120 119
0.059206 0.001006 0.001430 10 13 11
0.074946 0.008234 0.001430 120 123 116
-0.022460 0.008195 0.001430 1 1 4
-0.086848 0.009913 0.001431 142 159 159
-0.032451 -0.002225 0.001431 64 85 85
-0.053400 -0.003574 0.001431 110 119 123
-0.064022 0.002334 0.001431 134 149 150
-0.038051 0.002207 0.004559 141 149 148
0.075561 0.007783 0.001431 117 123 114
0.075261 0.010553 0.001431 92 95 91
-0.061689 0.002804 0.001432 133 146 151
-0.031211 -0.002214 0.001432 55 75 72
-0.053100 0.020055 0.001432 70 82 76
-0.076386 0.022005 0.001432 136 136 135
-0.082263 0.017617 0.001432 165 179 177
-0.081616 0.006206 0.001432 113 121 121
0.078486 0.005603 0.001432 73 70 45
0.076074 0.007146 0.001432 113 118 107
0.075244 0.008163 0.001432 120 125 116
0.078552 0.006179 0.001432 77 77 65
-0.059835 0.003138 0.001433 141 150 146
0.076952 0.006440 0.001433 98 96 87
0.074963 0.008878 0.001433 122 125 119
0.078645 0.006028 0.001433 76 75 52
-0.023205 0.008271 0.001433 5 3 1
-0.050673 -0.003272 0.001433 118 127 127
0.079442 0.005535 0.001433 71 67 53
0.065283 0.001472 0.001433 4 1 0
0.074950 0.008647 0.001433 122 125 119
-0.023325 0.002998 0.001433 98 108 105
0.074909 0.009530 0.001433 117 118 111
-0.048765 0.018015 0.001434 79 75 67
-0.051729 -0.003398 0.001434 100 115 119
0.075043 0.008417 0.001434 121 124 117
0.077210 0.006364 0.001434 94 89 87
0.084255 0.006560 0.001434 61 56 52
0.061433 0.002546 0.001434 116 120 118
-0.073384 -0.000404 0.001434 140 148 148
-0.043652 0.013481 0.001434 21 19 20
-0.032015 0.011111 0.001434 51 55 54
-0.064658 0.025410 0.001435 135 147 149
-0.038625 0.017193 0.001435 46 54 56
-0.069472 0.024504 0.001435 131 143 147
-0.072184 0.018365 0.001435 119 126 117
-0.079817 0.011171 0.001435 116 121 120
-0.042254 -0.000567 0.004559 154 166 166
-0.070037 0.000736 0.001435 140 151 148
-0.061244 0.020663 0.001436 91 93 77
-0.053217 -0.003559 0.001436 108 118 121
-0.065025 0.002120 0.001436 139 152 153
0.083132 0.006583 0.001437 59 63 42
0.079260 0.005178 0.001437 70 63 47
-0.055918 0.000635 0.004558 129 141 143
0.075154 0.008600 0.001437 121 126 120
-0.057571 -0.004149 0.001437 115 125 127
-0.036485 0.001185 0.004558 140 152 153
0.080178 0.006254 0.001438 73 77 65
-0.060082 0.025728 0.001438 127 135 140
-0.049177 -0.003110 0.001438 110 119 120
-0.047685 -0.002998 0.001438 107 116 119
-0.038929 0.001640 0.004558 142 150 152
-0.050433 -0.003246 0.001438 119 126 130
0.065249 0.003428 0.001438 114 123 121
-0.055905 0.020532 0.001439 91 85 70
-0.022170 0.004601 0.001439 108 119 114
-0.067155 0.019792 0.001439 99 107 105
-0.067760 0.019669 0.001439 100 110 105
0.075131 0.009225 0.001439 120 124 117
0.079614 0.006012 0.001439 76 72 67
-0.033212 0.012072 0.001439 43 53 47
-0.030509 -0.002232 0.001440 52 66 64
-0.024331 0.001698 0.001440 84 87 79
0.076671 0.006704 0.001440 107 111 99
-0.074330 -0.005789 0.004557 152 158 157
-0.065473 0.025271 0.001440 134 149 150
-0.062810 -0.004722 0.001440 115 128 131
0.075993 0.007616 0.001440 118 124 116
0.075127 0.010039 0.001441 106 107 102
0.077831 0.006316 0.001441 84 76 64
-0.042225 0.011349 0.001441 11 17 13
-0.035716 -0.002498 0.001441 87 96 93
0.075256 0.008907 0.001441 121 126 120
-0.032600 0.011554 0.001441 42 49 43
0.077532 0.006350 0.001441 87 77 68
0.086173 0.007119 0.001441 61 64 50
0.062971 0.003045 0.001441 114 127 117
-0.081888 0.004837 0.001441 106 117 111
0.079731 0.006127 0.001442 75 73 67
-0.064468 0.025439 0.001442 137 149 152
-0.065553 -0.003547 0.004557 134 146 155
-0.063785 0.002393 0.001442 133 148 151
0.078748 0.005175 0.001442 73 64 41
-0.059434 0.003207 0.001442 142 150 148
-0.033803 0.003489 0.004557 123 140 142
-0.073109 -0.000320 0.001443 142 149 150
-0.072129 -0.006842 0.001443 124 132 139
-0.042451 0.003894 0.001443 100 110 111
-0.043840 0.013728 0.001443 27 25 24
0.058986 0.000958 0.001443 15 9 7
-0.081703 0.001464 0.001443 112 122 125
0.075461 0.008618 0.001444 120 128 120
-0.038375 -0.002416 0.001444 82 100 107
-0.075929 -0.005716 0.004557 136 148 150
-0.076425 0.015336 0.001444 99 109 103
-0.045970 -0.002880 0.001444 110 119 123
-0.047468 -0.002985 0.001444 110 114 119
-0.035457 0.001771 0.004557 140 148 149
0.067759 0.003577 0.001445 15 28 29
-0.080813 -0.008799 0.001445 131 137 142
-0.042534 0.011845 0.001445 8 9 8
-0.047262 0.017060 0.001445 67 59 48
-0.079144 -0.001474 0.001445 129 143 143
-0.062069 0.020652 0.001446 90 90 76
0.065130 0.001230 0.001446 0 0 0
-0.056570 0.003607 0.001446 130 142 140
-0.060327 0.025718 0.001446 125 135 139
-0.083779 0.015737 0.001446 167 177 177
0.078655 0.005397 0.001447 74 66 38
0.078712 0.005796 0.001447 75 71 41
-0.073745 0.023216 0.001447 129 136 144
-0.034787 0.002142 0.004556 142 145 147
-0.073737 -0.007251 0.001447 122 136 137
0.080960 0.006391 0.001447 74 76 60
-0.052405 -0.003479 0.001448 107 113 114
